# .PCD v0.7 - Point Cloud Data file format
VERSION 0.7
FIELDS x y z
SIZE 4 4 4
TYPE F F F
COUNT 1 1 1
WIDTH 1343
HEIGHT 1
VIEWPOINT 0 0 0 1 0 0 0
POINTS 1343
DATA ascii
292.3439941 169.3730011 174.3600006
290.5639954 168.720993 176.1040039
290.4609985 175.0939941 174.1569977
288.6560059 177.0399933 174.3880005
289.2179871 175.7929993 174.8840027
287.6059875 177.5839996 175.3430023
286.5329895 176.6119995 175.4949951
288.0469971 177.8739929 176.7740021
288.7059937 179.1369934 176.9019928
286.7229919 177.8339996 177.5350037
285.9580078 179.022995 177.4349976
285.9970093 176.6940002 176.8119965
286.1629944 175.3860016 177.4810028
285.2609863 175.029007 178.5119934
284.355011 175.8209991 178.8339996
285.4100037 173.8309937 179.1289978
286.3970032 173.0059967 178.7660065
286.4989929 171.8350067 179.4029999
287.3240051 173.3430023 177.7330017
287.1719971 174.5279999 177.1230011
291.1879883 176.1300049 173.3650055
291.20401 174.2839966 175.1670074
289.8859863 179.3289948 177.9889984
288.1929932 179.878006 179.9620056
289.1919861 178.9980011 179.3899994
287.6040039 179.2610016 181.2120056
286.9970093 177.9819946 180.8670044
288.5969849 178.9129944 182.3179932
288.9230042 180.0299988 183.1529999
287.8619995 177.8179932 183.0820007
286.8850098 178.3220062 183.9759979
287.1719971 177.0639954 181.9380035
287.9299927 175.8939972 181.4490051
287.4760132 174.6260071 181.8150024
286.4779968 174.4429932 182.5010071
288.2369995 173.5800018 181.3450012
289.3770142 173.6569977 180.5579987
289.9570007 172.6179962 180.2230072
289.7780151 174.9909973 180.2120056
289.0629883 176.0359955 180.6560059
290.2460022 180.7749939 177.9790039
290.9460144 178.3049927 177.7330017
290.348999 180.0829926 183.9100037
289.0549927 180.1580048 186.2299957
290.019989 180.7519989 185.3240051
288.5759888 181.1840057 187.2429962
287.3779907 180.6860046 187.9100037
289.5480042 181.576004 188.3580017
289.355011 182.9550018 188.7129974
289.1029968 180.6640015 189.5039978
289.4549866 181.1360016 190.7899933
287.5870056 180.6759949 189.3130035
285.1679993 176.2519989 188.4949951
285.8049927 177.0679932 187.5919952
285.7839966 176.6660004 186.3079987
286.4200134 178.1959991 187.9210052
286.3460083 178.4450073 189.2480011
285.7359924 177.6909943 190.2310028
285.07901 176.4869995 189.8630066
284.4779968 175.6840057 190.5879974
285.8900146 178.2859955 191.477005
286.5700073 179.375 191.2369995
286.8729858 179.5429993 189.904007
291.2059937 181.0319977 183.1430054
290.8320007 178.6929932 184.1569977
290.6119995 183.8540039 189.1970062
291.2139893 186.0720062 187.8690033
291.0750122 184.6269989 187.878006
291.9219971 186.5310059 186.6100006
293.3169861 186.121994 186.6399994
291.3890076 185.951004 185.3079987
290.2219849 186.6419983 184.8609924
292.5840149 186.0980072 184.3679962
292.7179871 187.4049988 183.8390045
293.7520142 185.8079987 185.3220062
294.2399902 184.4089966 185.3070068
295.5580139 184.1499939 184.8589935
296.2709961 185.0980072 184.4700012
296.0159912 182.8710022 184.8609924
295.2219849 181.8730011 185.276001
295.7219849 180.6289978 185.2680054
293.8829956 182.1069946 185.720993
293.4389954 183.375 185.7220001
291.7170105 182.927002 189.5910034
290.118988 184.8659973 190.1799927
289.177002 185.9049988 183.8789978
288.2799988 183.4140015 184.0859985
288.6329956 184.6670074 184.7279968
286.868988 182.9920044 184.4620056
286.7929993 182.7960052 185.9049988
285.7330017 183.9550018 184.1049957
284.5650024 183.2100067 183.7339935
285.5079956 184.701004 185.4219971
284.2139893 185.253006 185.5650024
285.7529907 183.5919952 186.4459991
285.3389893 182.9609985 191.4819946
284.776001 182.2299957 190.4620056
283.9849854 181.2070007 190.8300018
284.9710083 182.4830017 189.1759949
285.7850037 183.5469971 188.9850006
286.3989868 184.3419952 189.9349976
286.1789856 184.0590057 191.3150024
286.6239929 184.654007 192.3090057
287.1650085 185.3320007 189.3320007
287.0039978 185.1329956 188.0500031
286.1690063 184.0700073 187.7669983
289.95401 185.3950043 182.7079926
288.0419922 186.8410034 183.6580048
283.5050049 183.8410034 182.6920013
282.8380127 181.6629944 181.3159943
282.5220032 182.6289978 182.3540039
281.8340149 180.526001 181.3329926
281.927002 179.8079987 182.5930023
280.375 180.9470062 181.2380066
280.0020142 181.1380005 179.871994
279.6430054 179.7839966 181.904007
279.4519958 178.6820068 181.0350037
280.6350098 179.3829956 183.0019989
278.2879944 178.5879974 187.522995
278.2690125 177.9109955 186.3679962
278.8840027 178.1849976 185.2149963
279.5969849 179.3220062 185.3170013
279.7099915 180.1320038 186.4380035
279.0169983 179.7230072 187.595993
279.0480042 180.3860016 188.7539978
280.526001 181.223999 186.1759949
280.8909912 181.0540009 184.927002
280.3800049 179.9109955 184.3480072
284.2460022 184.2169952 181.4470062
282.7099915 184.8760071 183.4120026
278.9259949 182.272995 179.4819946
276.9960022 180.4660034 179.2819977
277.5289917 181.6450043 179.9340057
275.8259888 179.9089966 180.0650024
276.2909851 179.4579926 181.3650055
274.7080078 180.8930054 180.3869934
273.8049927 181.0659943 179.2879944
274.0570068 180.2440033 181.6049957
273.1789856 179.1790009 181.276001
275.2850037 179.6920013 182.3410034
274.7780151 181.5800018 187.1130066
274.0979919 180.6439972 186.4340057
274.2900085 180.1900024 185.1950073
275.3320007 180.8110046 184.6170044
276.1300049 181.7920074 185.1849976
275.8210144 182.1880035 186.5070038
276.4960022 183.1230011 187.1860046
277.1130066 182.2019958 184.2929993
276.8900146 181.477005 183.220993
275.8210144 180.6179962 183.3439941
278.9320068 182.3840027 177.9940033
279.1919861 183.4880066 180.3099976
273.4419861 182.5509949 178.7630005
271.2659912 182.5440063 180.2949982
272.5239868 183.1660004 179.9190063
270.8840027 182.9259949 181.7140045
271.9119873 182.4530029 182.6320038
270.7770081 184.4179993 182.0039978
269.5180054 184.9730072 181.5970001
271.0050049 184.4640045 183.5110016
269.8590088 184.1000061 184.2630005
272.0939941 183.3970032 183.6829987
275.5889893 186.470993 185.772995
274.3389893 186.1329956 186.2369995
273.9599915 186.7140045 187.3840027
273.5220032 185.2920074 185.621994
274.0629883 184.8049927 184.4839935
275.3039856 185.0740051 183.9380035
276.1659851 185.9850006 184.6060028
277.2929993 186.3650055 184.2689972
275.4890137 184.3670044 182.7570038
274.3739929 183.7050018 182.595993
273.4549866 183.9360046 183.595993
272.6080017 182.3840027 177.5379944
274.6910095 183.3639984 178.6909943
269.4530029 186.4779968 180.9960022
268.9769897 187.3240051 183.4539948
269.7640076 187.4170074 182.2489929
269.4880066 188.2910004 184.496994
270.8510132 187.9490051 184.8699951
269.5880127 189.746994 184.0690002
268.3250122 190.4060059 184.1170044
270.5830078 190.3099976 185.0800018
270.0140076 190.602005 186.345993
271.552002 189.1329956 185.2310028
275.9840088 191.5449982 184.621994
275.006012 191.7359924 185.5709991
275.2470093 192.6849976 186.4920044
273.8739929 191.0449982 185.6159973
273.7990112 190.1309967 184.6239929
274.7170105 189.8619995 183.6289978
275.9299927 190.6109924 183.5910034
276.875 190.5200043 182.7920074
274.2609863 188.8439941 182.8009949
273.0979919 188.5149994 183.298996
272.7590027 189.2510071 184.4120026
268.0480042 186.7330017 180.5740051
270.5570068 186.6470032 180.0019989
267.9360046 191.4750061 182.9750061
269.1380005 193.4669952 184.2279968
269.0710144 192.5890045 183.0829926
270.3869934 194.3190002 184.1670074
271.5629883 193.4689941 184.2519989
270.5889893 195.1089935 182.8820038
269.8320007 196.3240051 182.8849945
272.0979919 195.352005 182.8919983
272.4840088 196.4299927 183.7299957
272.6149902 194.029007 183.4759979
273.053009 193.0399933 182.4720001
274.3699951 193.1170044 182.0119934
275.1690063 193.9600067 182.401001
274.7160034 192.1670074 181.0789948
273.9119873 191.1690063 180.5610046
274.3779907 190.3869934 179.727005
272.572998 191.1499939 181.0789948
272.197998 192.0610046 181.9929962
266.6409912 192.0879974 183.3899994
268.04599 190.8139954 181.6439972
269.0320129 196.7819977 181.5579987
271.4140015 197.2169952 180.5119934
270.0769958 197.6889954 180.7630005
272.4360046 198.2920074 180.8289948
273.5769958 197.6889954 181.5050049
273.0039978 199.0379944 179.6239929
272.2669983 200.2189941 179.3009949
274.4559937 199.2929993 180.026001
274.6119995 200.4179993 180.8710022
274.7709961 198.0169983 180.8139954
278.5270081 195.7160034 178.2359924
278.5329895 196.9290009 178.8829956
279.6879883 197.6119995 178.845993
277.4830017 197.4369965 179.5169983
276.4060059 196.6199951 179.4470062
276.29599 195.3910065 178.8209991
277.4339905 194.8580017 178.1499939
277.5390015 193.7850037 177.5449982
275.0159912 194.8690033 178.9730072
274.3800049 195.7700043 179.6730042
275.1650085 196.8569946 180.0070038
267.9249878 197.6629944 182.0180054
268.7210083 195.5829926 180.7250061
271.9530029 200.5720062 177.7610016
274.3139954 201.7149963 177.3820038
273.3890076 200.6459961 177.0659943
275.6560059 201.4790039 176.7200012
276.2179871 200.2250061 177.1959991
275.6579895 201.3390045 175.2019958
275.6380005 202.6179962 174.5500031
276.95401 200.5679932 174.9499969
278.1109924 201.3890076 174.9609985
276.993988 199.6309967 176.1640015
276.493988 198.2680054 175.901001
277.3970032 197.3339996 175.3959961
278.5679932 197.595993 175.154007
276.8739929 196.0789948 175.1809998
275.572998 195.6640015 175.4089966
275.2619934 194.4960022 175.1750031
274.7030029 196.6809998 175.9259949
275.1789856 197.9170074 176.1470032
271.355011 201.9369965 177.7380066
271.2080078 199.4340057 177.1620026
275.1430054 202.7389984 173.0140076
277.6520081 202.5299988 172.1660004
276.2980042 202.0099945 172.1840057
278.5769958 201.5829926 171.4259949
278.7279968 200.3430023 172.1690063
278.1260071 201.1390076 170.0410004
278.4140015 202.1390076 169.0590057
278.9060059 199.8399963 169.8439941
280.25 200.0460052 169.4409943
278.8859863 199.2579956 171.2630005
277.4049988 194.404007 170.8289948
278.5889893 194.9940033 170.4429932
279.493988 194.1869965 169.8659973
278.8640137 196.2830048 170.6069946
277.8399963 196.947998 171.1940002
276.618988 196.4530029 171.6139984
276.3410034 195.0650024 171.4349976
275.3179932 194.4340057 171.7409973
275.8389893 197.4640045 172.1629944
276.5849915 198.5330048 172.0769958
277.8129883 198.2920074 171.5010071
275.1499939 204.1820068 172.6470032
273.8859863 201.9499969 172.8549957
277.8479919 201.9830017 167.5549927
278.7820129 200.3150024 165.7160034
279.0360107 201.2350006 166.7929993
279.7449951 199.154007 165.7980042
279.5840149 198.4730072 167.072998
279.526001 198.0659943 164.7640076
280.151001 198.4080048 163.5310059
280.1489868 196.848999 165.4369965
281.5660095 196.8359985 165.3650055
279.7229919 197.0659943 166.8919983
278.4410095 196.4069977 167.2649994
278.2839966 195.0079956 167.0709991
279.2080078 194.3529968 166.5559998
277.1210022 194.4170074 167.4519958
276.1419983 195.1499939 167.9940033
275.0220032 194.5240021 168.3650055
276.2659912 196.5570068 168.1820068
277.4169922 197.1380005 167.8070068
277.75 203.3600006 166.9929962
276.6350098 201.1080017 167.5659943
279.2579956 198.5540009 162.2019958
279.6789856 196.0070038 161.6390076
278.7479858 197.0709991 161.9219971
278.9500122 194.6880035 161.5679932
278.4039917 194.3630066 162.8760071
277.743988 194.6750031 160.6430054
278.1279907 194.470993 159.2769928
276.9030151 193.5359955 161.2140045
277.3370056 192.253006 160.7940063
277.1619873 193.6900024 162.7200012
276.1210022 194.4120026 163.4819946
275.0700073 193.6620026 164.0220032
274.9630127 192.4530029 163.8699951
274.1480103 194.3869934 164.7449951
274.1520081 195.753006 164.9810028
273.2550049 196.2550049 165.6660004
275.2539978 196.4589996 164.3880005
276.177002 195.7850037 163.6750031
280.1629944 198.9589996 161.0879974
278.072998 199.3939972 162.5399933
277.3959961 195.3029938 158.1049957
274.7950134 194.8999939 157.6329956
275.8580017 195.2799988 158.5460052
274.4639893 193.4279938 157.7899933
274.493988 193.0460052 159.1929932
273.0830078 193.0070038 157.3090057
273.04599 192.8170013 155.8939972
272.8529968 191.7140045 158.0899963
273.4890137 190.5839996 157.5200043
273.5079956 192.0529938 159.4360046
269.7690125 190.923996 162.6970062
270.4909973 190.0890045 161.8800049
270.1719971 188.7850037 161.9290009
271.4580078 190.4989929 161.072998
271.6480103 191.8359985 161.1499939
270.980011 192.7570038 161.9340057
269.9460144 192.3009949 162.7940063
269.2390137 192.9589996 163.5670013
271.4729919 194.0379944 161.720993
272.4110107 193.8809967 160.826004
272.5669861 192.5700073 160.4290009
277.5669861 194.5180054 156.8430023
277.8900146 196.7109985 158.1640015
272.1539917 193.7969971 154.9750061
269.5390015 193.9499969 154.5950012
270.6830139 193.1730042 155.0279999
268.2749939 193.1089935 154.5789948
268.3410034 192.1029968 153.5330048
267.9630127 192.3009949 155.8300018
267.3890076 193.1179962 156.8509979
266.9660034 191.2680054 155.302002
265.6440125 191.7649994 155.1940002
267.5090027 191.0070038 153.8910065
268.2619934 189.7510071 153.7250061
267.6889954 188.7550049 152.9279938
266.6029968 188.8789978 152.371994
268.4400024 187.6060028 152.8070068
269.677002 187.3450012 153.3829956
270.2319946 186.2630005 153.1679993
270.2009888 188.4140015 154.1909943
269.4970093 189.5509949 154.3309937
272.6669922 193.647995 153.5820007
272.1130066 195.1519928 155.6009979
268.144989 193.2879944 158.2669983
265.7999878 193.095993 159.5070038
267.1539917 192.6170044 159.3269958
264.8569946 191.9299927 159.7140045
264.8930054 191.0789948 158.5390015
265.1820068 191.0130005 160.8869934
264.57901 191.5220032 162.0859985
264.5780029 189.6799927 160.4450073
263.1849976 189.5939941 160.6840057
264.8080139 189.7189941 158.927002
266.6889954 185.8509979 156.177002
265.381012 186.1560059 156.4629974
264.4559937 185.3390045 155.9259949
265.0050049 187.1869965 157.2129974
266.0629883 187.904007 157.6560059
267.4079895 187.6840057 157.423996
267.79599 186.5700073 156.6199951
268.9370117 186.2030029 156.2969971
268.1820068 188.6470032 158.0599976
267.3150024 189.423996 158.654007
266.0100098 189.0410004 158.4420013
268.2309875 194.7550049 158.5359955
269.3980103 192.470993 158.2420044
265.1260071 191.0700073 163.5370026
263.3729858 189.1040039 163.8690033
264.7380066 189.526001 163.6439972
263.3099976 187.6029968 164.0540009
263.7390137 186.9429932 162.8320007
264.2369995 187.0350037 165.1199951
263.6629944 187.1380005 166.4210052
264.4060059 185.5839996 164.6820068
263.3359985 184.753006 165.0939941
264.394989 185.7220001 163.1529999
267.0559998 183.9880066 159.1049957
265.776001 183.8480072 159.477005
265.1489868 184.3320007 160.5500031
265.993988 185.052002 161.3110046
267.3359985 185.2899933 161.0630035
267.8829956 184.7169952 159.8910065
269.1650085 184.8509979 159.5189972
267.8880005 186.0780029 162.0650024
266.8869934 186.2960052 162.8840027
265.7080078 185.701004 162.4909973
264.3380127 191.8240051 164.5509949
266.6090088 191.1719971 163.5440063
264.6149902 187.3580017 167.697998
267.0169983 186.3390045 168.1380005
265.7090149 186.2079926 167.5500031
268.0769958 186.0319977 167.1069946
268.071991 187.0559998 166.0749969
269.5079956 186.0339966 167.6150055
269.8129883 184.7799988 168.2259979
270.303009 186.2579956 166.3339996
270.4760132 185.0800018 165.5650024
269.3900146 187.2259979 165.5740051
272.8699951 190.7350006 164.3820038
272.8370056 189.3970032 164.0709991
273.8680115 188.927002 163.3470001
271.8649902 188.5769958 164.4409943
270.9150085 189.2109985 165.1679993
270.8569946 190.5390015 165.5379944
271.9049988 191.4120026 165.1230011
272.0320129 192.6269989 165.3370056
269.7160034 190.7910004 166.2899933
269.1090088 189.6349945 166.3609924
269.7799988 188.6309967 165.701004
263.8099976 187.0670013 168.9160004
265.2829895 188.6849976 167.5579987
270.8250122 184.7180023 169.4750061
272.7919922 183.7859955 167.9470062
272.276001 184.8249969 168.8159943
273.9859924 184.3000031 167.1629944
273.571991 185.4530029 166.3730011
275.1520081 184.8209991 167.9989929
276.0239868 183.7819977 168.4600067
275.8269958 185.8029938 167.0440063
276.6600037 185.1860046 166.076004
274.6080017 186.4279938 166.3580017
275.4330139 191.3710022 167.2610016
276.178009 190.4839935 166.5180054
277.2929993 190.9750061 165.9450073
275.8590088 189.2079926 166.352005
274.7200012 188.8820038 167.0050049
273.9060059 189.6920013 167.7749939
274.2579956 191.0599976 167.9389954
273.6659851 191.9369965 168.5800018
272.8269958 188.9750061 168.276001
272.9970093 187.7660065 167.8119965
274.1260071 187.6369934 167.0310059
270.6749878 183.3639984 170.0769958
270.6170044 185.9299927 170.3240051
276.9379883 184.0189972 169.7720032
278.9549866 185.0240021 168.3710022
277.9129944 185.2169952 169.3609924
279.8399963 186.2510071 168.2769928
279.0830078 187.378006 167.7519989
280.42099 186.7720032 169.5859985
281.5710144 186.022995 169.9940033
280.7550049 188.2230072 169.2350006
281.9760132 188.3650055 168.5279999
279.5870056 188.5890045 168.3079987
278.4840088 189.3200073 168.9799957
278.5979919 190.7220001 169.147995
279.6119995 191.3049927 168.7279968
277.5960083 191.3959961 169.7669983
276.5169983 190.7380066 170.2059937
275.5559998 191.4429932 170.8049927
276.3739929 189.326004 170.0480042
277.3699951 188.6629944 169.4369965
277.7680054 182.7969971 169.9559937
276.0660095 184.4850006 170.8869934
281.881012 185.8099976 171.5659943
284.0069885 187.404007 171.4609985
282.6839905 187.1269989 171.9940033
284.3630066 188.8730011 171.6260071
283.3469849 189.6940002 170.9779968
284.4200134 189.4199982 173.048996
285.6560059 189.1159973 173.7149963
284.223999 190.9179993 172.8240051
285.394989 191.5910034 172.3919983
283.1900024 190.9179993 171.6909943
279.5350037 194.0690002 173.5050049
280.8080139 194.276001 173.1349945
281.7070007 193.4060059 172.6710052
281.1799927 192.1690063 172.598999
279.8880005 191.7969971 172.9450073
279.0320129 192.8150024 173.4179993
277.7619934 192.6109924 173.7799988
279.6990051 190.4349976 172.7440033
280.8580017 190.0169983 172.2859955
281.803009 191.0169983 172.1690063
282.8049927 184.6430054 171.647995
280.5920105 185.7799988 172.3240051
285.6830139 188.9360046 175.3220062
286.3450012 191.4730072 175.7140045
285.3859863 190.3999939 175.8860016
285.7640076 192.798996 176.177002
284.5889893 193.1260071 175.3829956
285.276001 192.8840027 177.6199951
286.3460083 193.1080017 178.5449982
284.3039856 194.0610046 177.5559998
284.9580078 195.3179932 177.5610046
283.651001 193.8359985 176.1860046
282.3900146 193.0690002 176.2420044
281.2279968 193.7480011 176.6069946
281.2049866 194.9420013 176.8739929
280.0920105 192.9720001 176.647995
279.9899902 191.6210022 176.3679962
278.8900146 191.0659943 176.4440002
281.2210083 190.9940033 175.9960022
282.3500061 191.7160034 175.9470062
287.072998 188.5720062 175.7079926
284.553009 188.0410004 175.7180023
286.1820068 192.6779938 180.095993
285.947998 195.1880035 180.9149933
285.3559875 193.878006 180.7539978
284.9750061 196.1439972 181.5829926
283.8299866 196.3869934 180.7200012
284.3540039 195.6840057 182.8939972
285.2309875 195.8769989 184
283.1090088 196.5610046 182.9869995
283.3819885 197.8679962 183.4589996
282.6740112 196.6260071 181.5169983
277.8510132 195.1309967 182.2279968
278.5369873 196.1660004 182.8150024
277.8500061 196.8999939 183.7089996
279.803009 196.4620056 182.548996
280.3380127 195.6230011 181.6349945
279.7399902 194.5570068 180.9920044
278.3789978 194.2519989 181.2879944
277.6730042 193.3450012 180.8280029
280.6340027 193.9380035 180.128006
281.7390137 194.6239929 180.2539978
281.6329956 195.6629944 181.1499939
287.5559998 192.6820068 180.673996
285.3540039 191.4380035 180.1809998
285.2640076 194.7910004 185.1900024
283.5710144 196.0789948 186.779007
283.8479919 194.9499969 185.9140015
282.125 196.0579987 187.2369995
281.2520142 196.1320038 186.0749969
281.6640015 194.8009949 187.9649963
282.0039978 194.8110046 189.352005
280.1549988 194.8339996 187.7409973
279.4719849 195.7220001 188.6109924
280.0799866 195.3549957 186.3009949
280.0069885 194.2769928 185.2810059
278.7780151 193.6029968 185.0910034
277.7929993 193.9320068 185.776001
278.70401 192.6130066 184.1660004
279.7799988 192.2830048 183.447998
279.6520081 191.3040009 182.5460052
281.0329895 192.9429932 183.6190033
281.1019897 193.9259949 184.5330048
286.3280029 195.220993 186.1439972
285.3330078 193.4320068 184.5769958
282.1040039 193.4199982 190.1690063
279.5429993 193.4210052 190.8899994
280.6210022 192.8240051 190.1210022
278.2789917 192.5970001 190.7630005
277.8819885 192.5500031 189.3659973
278.3869934 191.1360016 191.1840057
278.1910095 190.996994 192.5970001
277.2659912 190.4830017 190.3789978
275.9859924 190.6670074 190.9559937
277.3259888 191.2769928 189.0690002
278.1099854 190.6529999 187.9839935
277.5220032 189.6100006 187.2740021
276.4129944 189.1620026 187.5339966
278.2820129 189.1080017 186.2440033
279.5419922 189.522995 185.8549957
280.053009 189.0370026 184.8439941
280.0950012 190.5769958 186.6470032
279.3829956 191.0939941 187.6580048
282.4079895 193.7669983 191.5879974
283.0090027 192.4889984 189.4320068
278.8280029 189.7420044 193.3880005
276.946991 187.9779968 192.7019958
278.3150024 188.4609985 192.5800018
276.7900085 186.6470032 191.9909973
277.0010071 186.8269958 190.5630035
277.7850037 185.5820007 192.4290009
277.256012 184.8739929 193.5650024
277.9370117 184.7169952 191.173996
276.9240112 183.7330017 191.048996
277.769989 185.7519989 190.0480042
280.8099976 185.9400024 185.9290009
279.7149963 185.1419983 186.1620026
279.3770142 184.3040009 185.1649933
279.0039978 185.1609955 187.2870026
279.4920044 186.0529938 188.1809998
280.5830078 186.8930054 188.0449982
281.3330078 186.8650055 186.8289948
282.3330078 187.5330048 186.5160065
280.7659912 187.654007 189.1920013
279.802002 187.279007 189.9909973
278.9769897 186.3240051 189.4400024
278.2099915 189.7330017 194.7449951
280.3110046 189.802002 193.2630005
278.2009888 184.5059967 194.8289948
277.8460083 182.0399933 193.8959961
278.7219849 183.0310059 194.4980011
278.618988 181.1679993 192.9199982
279.3049927 182.0440063 191.9790039
279.7030029 180.2640076 193.5169983
279.8450012 179.0740051 192.7230072
280.9519958 181.1309967 193.3939972
282.1619873 180.3970032 193.375
280.7009888 181.8280029 192.0559998
282.8999939 185.0850067 188.8220062
282.2590027 183.8959961 188.5610046
282.2250061 183.5070038 187.2709961
281.6940002 183.1399994 189.4929962
281.82901 183.673996 190.7290039
282.446991 184.8560028 191.0950012
283.0469971 185.6600037 190.0809937
283.6459961 186.7449951 190.2019958
282.3670044 185.052002 192.4689941
281.7229919 184.0039978 192.9100037
281.3800049 183.1159973 191.9089966
277.3139954 184.4290009 196.0240021
279.3770142 185.4210052 194.8560028
280.2820129 177.6790009 193.4160004
278.6860046 176.378006 191.7389984
280.0150146 176.5829926 192.2819977
278.7539978 175.852005 190.3150024
279.3389893 176.8569946 189.4400024
279.5499878 174.5679932 190.0740051
278.927002 173.8540039 189
280.8989868 175.1130066 189.602005
281.644989 174.1790009 188.8439941
280.4410095 176.2980042 188.746994
283.2829895 178.7740021 185.2120056
282.4689941 177.7120056 185.1269989
281.7690125 177.102005 186.0890045
281.9760132 177.6970062 187.2819977
282.7919922 178.7929993 187.5269928
283.4670105 179.3529968 186.4190063
284.2669983 180.4219971 186.4989929
282.7730103 179.1269989 188.8760071
281.9530029 178.25 189.4080048
281.42099 177.3619995 188.5
279.3399963 177.4360046 194.5469971
281.7510071 177.6990051 193.6750031
278.1809998 172.4490051 189.2740021
277.3240051 172.0980072 186.7689972
277.0369873 172.4179993 188.1589966
277.4930115 173.3679962 185.9519958
278.8590088 173.8580017 186.1109924
277.3420105 173.1999969 184.4440002
275.9710083 173.2400055 184.0330048
278.1459961 174.3760071 183.9029999
277.4460144 175.6040039 183.9589996
279.3240051 174.4109955 184.8829956
283.3080139 174.1929932 181.7039948
282.4020081 175.2079926 181.8930054
282.5710144 176.2980042 181.1230011
281.4039917 175.1589966 182.7689972
281.3880005 173.9929962 183.4539948
282.2479858 172.9179993 183.3399963
283.3120117 172.9850006 182.3919983
284.1759949 172.1340027 182.1360016
281.8959961 171.9069977 184.2250061
280.8429871 172.3699951 184.8439941
280.4719849 173.6269989 184.4199982
277.506012 172.5220032 190.602005
279.1409912 171.3439941 189.0019989
275.5069885 172.4669952 182.6909943
275.5209961 174.7960052 181.4290009
275.9700012 173.423996 181.5
276.3670044 175.5800018 180.447998
277.7619934 175.4830017 180.8450012
276.348999 175.0970001 179.0039978
275.2229919 175.6260071 178.2960052
277.678009 175.6239929 178.4669952
277.631012 176.9929962 178.1009979
278.5880127 175.4559937 179.6900024
282.5039978 172.9380035 177.6340027
281.9949951 174.1719971 177.3049927
282.6090088 174.8150024 176.3009949
280.9599915 174.7310028 177.9120026
280.4620056 173.9389954 178.8910065
280.8970032 172.6909943 179.2929993
282.0090027 172.1089935 178.6360016
282.5419922 171.0149994 178.8509979
280.1140137 172.2030029 180.3309937
279.230011 173.1410065 180.5399933
279.3859863 174.2290039 179.7070007
274.0150146 172.4329987 182.6970062
276.2680054 171.1889954 182.5839996
274.605011 174.826004 177.0359955
276.3330078 176.076004 175.4470062
275.769989 174.8320007 175.9400024
277.6459961 175.8249969 174.723999
278.5350037 175.0619965 175.5839996
277.5870056 175.0099945 173.4349976
277.2170105 175.8529968 172.3289948
279.0140076 174.4689941 173.3130035
279.9219971 175.3999939 172.7489929
279.3909912 174.2570038 174.7859955
279.4020081 172.8730011 175.3059998
280.3819885 171.9989929 174.8240051
281.1830139 172.3009949 173.9490051
280.3859863 170.753006 175.4060059
279.5310059 170.2819977 176.3880005
279.7070007 169.1529999 176.8569946
278.5299988 171.2169952 176.8049927
278.4970093 172.4470062 176.2640076
273.4729919 175.651001 176.522995
274.355011 173.4140015 177.4440002
276.9490051 175.2200012 170.8630066
279.0310059 176.5610046 169.8970032
278.3710022 175.2879944 170.1329956
279.9500122 176.4839935 168.6880035
281.0390015 175.5559998 168.9380035
279.3359985 175.9620056 167.3970032
278.5750122 176.9750061 166.7389984
280.5679932 175.5460052 166.5919952
281.2009888 176.6300049 165.9349976
281.4949951 175.0240021 167.697998
283.6589966 170.7859955 165.7120056
283.6610107 172.0679932 165.3209991
283.053009 173.121994 165.871994
282.3609924 172.753006 166.9669952
282.2579956 171.4720001 167.4900055
282.9559937 170.447998 166.8170013
282.9660034 169.1730042 167.2140045
281.45401 171.4649963 168.621994
281.1010132 172.7220001 168.7660065
281.6279907 173.5630035 167.8099976
276.0310059 176.1629944 170.1569977
276.5629883 173.7850037 170.996994
277.2030029 176.5879974 165.9869995
278.5759888 176.1450043 163.7519989
277.6749878 175.651001 164.779007
279.1679993 174.9940033 162.9600067
279.9960022 174.1710052 163.826004
278.1690063 174.0209961 162.3500061
277.6700134 174.5180054 161.1109924
278.9989929 172.7489929 162.1809998
279.7919922 172.7429962 161.0070038
279.9100037 172.8119965 163.4149933
279.4849854 171.9850006 164.5619965
279.881012 170.6459961 164.5850067
280.5379944 170.1239929 163.6920013
279.4729919 169.9400024 165.6920013
278.7260132 170.4109955 166.7570038
278.4660034 169.654007 167.6940002
278.3439941 171.7899933 166.6569977
278.7260132 172.5119934 165.5930023
276.6329956 177.845993 165.4170074
276.3779907 175.7680054 166.9190063
276.1719971 174.1600037 160.6430054
276.9639893 172.0610046 159.2350006
276.2219849 172.5890045 160.3600006
276.9920044 170.5480042 159.272995
277.7070007 170.1000061 160.4570007
275.6470032 169.8370056 159.352005
275.0280151 169.7259979 158.0639954
276.0339966 168.4799957 159.9349976
276.553009 167.5859985 158.9680023
277.1480103 168.8760071 160.9129944
276.6870117 169.0440063 162.3079987
276.5660095 167.8990021 163.1239929
276.8389893 166.7810059 162.647995
276.151001 168.0429993 164.4060059
275.8609924 169.2570038 164.8849945
275.4580078 169.3500061 166.1560059
275.9700012 170.4320068 164.0820007
276.381012 170.2819977 162.8130035
275.947998 174.8650055 159.3470001
275.2420044 174.404007 161.7830048
273.4219971 169.6029968 157.9420013
271.8630066 167.7189941 158.9550018
273.1180115 168.0910034 158.3470001
271.9200134 166.2850037 159.4329987
273.1419983 166.0659943 160.1959991
270.7950134 165.8739929 160.3710022
269.6019897 165.4909973 159.6900024
271.4410095 164.7519989 161.173996
271.5010071 163.5269928 160.4680023
272.8519897 165.3150024 161.3690033
272.2969971 165.8500061 166.4790039
272.1730042 164.7899933 165.6690063
272.3389893 164.7120056 164.3480072
272.6820068 165.9100037 163.8410034
272.848999 167.0899963 164.5480042
272.6390076 167.0390015 165.9369965
272.7590027 168.1000061 166.7369995
273.20401 168.1289978 163.697998
273.2430115 167.5659943 162.5140076
272.9299927 166.223999 162.5220032
273.0910034 169.7619934 156.4989929
272.7900085 170.5110016 158.9450073
268.1669922 165.8710022 160.322998
267.9710083 163.4499969 161.3860016
268.0100098 164.8840027 161.5659943
267.7739868 162.7660065 162.7200012
268.8930054 163.0939941 163.5919952
266.5379944 163.2109985 163.4900055
265.3720093 162.4900055 163.0789948
266.9400024 162.947998 164.9369965
266.8190002 161.5829926 165.3009949
268.4200134 163.3480072 164.9089966
268.6010132 166.9539948 168.5249939
268.2650146 165.6239929 168.6360016
267.9389954 165.201004 169.8609924
268.2489929 164.772995 167.6179962
268.598999 165.3690033 166.4570007
268.9509888 166.6900024 166.2380066
268.9649963 167.5919952 167.3419952
269.2479858 168.8009949 167.3509979
269.243988 166.9080048 164.897995
269.0679932 165.7420044 164.3320007
268.6809998 164.7579956 165.2180023
267.1270142 165.5249939 159.3200073
268.2430115 167.2619934 160.8529968
263.9689941 163.2669983 162.8789978
262.821991 162.0980072 164.9600067
263.3269958 163.3040009 164.3399963
262.5090027 162.3430023 166.4230042
263.7340088 162.701004 167.1269989
261.5620117 163.5 166.7299957
260.1740112 163.2019958 166.5460052
261.92099 163.8170013 168.1779938
261.3630066 162.9089966 169.1119995
263.4460144 163.6730042 168.1300049
265.1719971 168.2669983 169.7200012
264.6809998 167.2109985 170.3829956
264.2720032 166.0339966 169.9149933
264.4060059 165.9859924 168.576004
264.8980103 166.9909973 167.7539978
265.2969971 168.1860046 168.3760071
265.7890015 169.2350006 167.7109985
264.8919983 166.5879974 166.423996
264.401001 165.371994 166.4640045
264.0679932 164.9459991 167.7350006
263.1159973 162.3899994 162.0299988
264.2409973 164.6710052 162.4420013
259.1210022 164.4060059 166.2810059
258.6749878 166.1430054 168.2579956
259.5849915 165.5500031 167.2960052
259.3829956 166.3480072 169.5839996
260.7200012 166.8619995 169.3390045
258.7349854 167.3220062 170.5630035
259.0539856 166.9109955 171.8890076
259.4590149 168.6289978 170.2489929
259.473999 169.5420074 171.3300018
260.8710022 168.1230011 169.9600067
263.5100098 172.503006 169.5050049
262.8680115 171.9409943 170.5410004
262.1919861 170.7949982 170.5890045
262.2139893 170.1840057 169.3910065
262.8320007 170.6349945 168.2359924
263.5050049 171.8600006 168.3119965
264.1319885 172.4179993 167.2740021
262.6459961 169.7400055 167.1940002
261.9289856 168.7839966 167.7279968
261.6329956 168.9859924 169.0579987
257.7890015 163.8950043 166.7019958
259.3049927 164.9230042 164.8919983
257.8989868 166.3379974 172.8529968
255.9559937 168.147995 172.9100037
257.2000122 167.6450043 173.4579926
255.3959961 169.2689972 173.7669983
255.0370026 168.7480011 175.0769958
256.3089905 170.4700012 174.0090027
255.5460052 171.6829987 174.0149994
256.9070129 170.1620026 175.3829956
257.3039856 171.3119965 176.1049957
255.75 169.4420013 176.0850067
256.0559998 168.1950073 181.0169983
255.4579926 169.2870026 180.4290009
254.8630066 170.1580048 181.2630005
255.4380035 169.5050049 179.1190033
256.0650024 168.5220032 178.4329987
256.6849976 167.3869934 178.9250031
256.7049866 167.1710052 180.3320007
257.2049866 166.2299957 180.9620056
257.197998 166.6159973 177.8890076
256.8940125 167.2839966 176.8070068
256.2130127 168.4570007 177.0650024
258.6040039 165.6190033 173.9550018
256.9129944 165.5980072 172.0019989
255.4980011 172.6080017 172.6869965
257.9920044 173.3959961 173.0579987
257.0220032 172.7259979 172.2319946
258.9429932 174.201004 172.201004
259.6340027 173.3139954 171.2859955
258.29599 175.197998 171.2480011
257.9609985 176.4140015 171.9179993
259.4049988 175.4409943 170.220993
260.3200073 176.4389954 170.6349945
260.131012 174.0879974 170.2059937
260.1010132 173.302002 168.9559937
260.9309998 173.7189941 167.9109955
261.644989 174.7059937 167.9790039
260.8940125 172.9309998 166.7870026
260.1340027 171.8000031 166.5890045
260.2359924 171.1809998 165.5279999
259.2950134 171.4409943 167.6959991
259.3049927 172.1840057 168.8119965
255.0240021 173.9609985 173.1009979
254.7660065 171.8730011 171.6150055
256.519989 177.0899963 171.6880035
257.4670105 179.1710052 173.0469971
256.7929993 178.6529999 171.8730011
258.2780151 180.4019928 172.6880035
259.276001 180.0319977 171.697998
257.5029907 181.5690002 172.0749969
258.1799927 182.7969971 172.3860016
257.6170044 181.2799988 170.5789948
257.4590149 182.4349976 169.7779999
259.0499878 180.746994 170.4929962
261.9039917 179.8379974 166.3549957
261.8970032 180.9380035 167.1779938
262.776001 181.9100037 166.8730011
261.0889893 181.0780029 168.223999
260.2690125 180.0130005 168.3789978
260.1950073 178.8690033 167.6089935
261.072998 178.7290039 166.4929962
261.1669922 177.7810059 165.6959991
259.2189941 178.0090027 168.0970001
258.7269897 178.6269989 169.1380005
259.3269958 179.8410034 169.3800049
255.6320038 176.6260071 172.7920074
256.1109924 176.8619995 170.2749939
257.756012 183.6549988 173.6880035
255.8569946 184.8480072 172.2870026
256.2309875 184.0469971 173.427002
254.4839935 185.4570007 172.4900055
253.4759979 184.4140015 172.5670013
254.2940063 186.3119965 173.7339935
253.3480072 187.3240051 173.3950043
253.6959991 185.3130035 174.7259979
252.9559937 185.923996 175.7669983
252.7899933 184.5 173.798996
252.4349976 183.125 174.1959991
251.1239929 182.6799927 173.9550018
250.2740021 183.4889984 173.5359955
250.8119965 181.3869934 174.1880035
251.7350006 180.552002 174.6640015
251.3910065 179.2680054 174.8309937
253.0559998 180.9900055 174.9810028
253.3600006 182.272995 174.7369995
258.5499878 184.9179993 173.6730042
257.8179932 182.7649994 174.8860016
253.8390045 188.8359985 173.1320038
252.9230042 189.2480011 175.6029968
253.0070038 189.6710052 174.2089996
251.4859924 189.3410034 176.0939941
250.9309998 190.6060028 175.628006
250.5200043 188.2720032 175.5809937
249.4420013 188.0749969 176.503006
250.0390015 188.8789978 174.2640076
248.8000031 188.3800049 173.7969971
249.9700012 190.3670044 174.6130066
249.197998 194.9720001 172.6300049
248.7929993 194.4600067 173.8419952
248.0599976 195.2769928 174.6190033
249.0829926 193.2350006 174.2619934
249.8240051 192.552002 173.3589935
250.2870026 192.973999 172.128006
249.9609985 194.2890015 171.6860046
250.2640076 194.8430023 170.6199951
251.0200043 191.9700012 171.5050049
250.9790039 190.973999 172.3480072
250.2550049 191.2559967 173.4880066
253.3609924 189.2299957 171.7669983
255.2879944 188.9600067 173.4660034
248.8379974 186.5950012 176.7369995
246.6580048 187.2910004 175.4129944
247.2579956 186.7910004 176.6289978
245.6390076 188.3630066 175.7350006
245.8500061 189.5540009 174.9290009
244.177002 188.0050049 175.5399933
243.3860016 188.7140045 176.4989929
243.9140015 188.4409943 174.0939941
242.5670013 188.8309937 173.8789978
244.8710022 189.6300049 173.9100037
247.0890045 192.5509949 170.2969971
246.3699951 192.8569946 171.3910065
245.7929993 192.0420074 172.2769928
246.0090027 190.753006 171.947998
246.7230072 190.2819977 170.8529968
247.2920074 191.2460022 169.996994
248.0209961 190.9409943 168.9179993
246.7369995 188.8910065 170.8339996
246.0500031 188.5559998 171.901001
245.595993 189.6349945 172.6349945
249.1470032 186.220993 178.1470032
249.2630005 185.6920013 175.6260071
242.7129974 187.9069977 177.723999
241.0469971 186.8800049 175.9329987
241.9859924 186.6759949 177.0130005
240.1900024 185.6470032 175.75
240.9810028 184.5829926 175.1320038
239.628006 185.0769958 177.0559998
238.2779999 184.6260071 176.9129944
240.5850067 183.9210052 177.3529968
240.0240021 182.8999939 178.1609955
240.9279938 183.4230042 175.9429932
243.2920074 178.8580017 175.4279938
242.0079956 179.2299957 175.3079987
241.4629974 180.447998 175.4160004
242.4069977 181.3730011 175.6730042
243.7700043 181.1490021 175.8139954
244.2169952 179.8049927 175.6929932
245.4949951 179.4279938 175.8370056
244.4389954 182.3430023 176.0639954
243.4830017 183.2440033 176.0839996
242.2220001 182.723999 175.8849945
241.6730042 188.7680054 178.3450012
243.8059998 187.348999 178.5780029
237.0670013 185.4689941 177.5839996
238.0939941 187.3419952 179.1759949
237.6109924 185.9779968 179.0019989
237.5410004 187.9530029 180.451004
236.0870056 187.9980011 180.3959961
237.8269958 187.1959991 181.7409973
239.1410065 187.4779968 182.2250061
236.7310028 187.7079926 182.6860046
237.0269928 188.927002 183.3549957
235.5590057 187.9369965 181.7189941
234.470993 186.9400024 181.7799988
233.4250031 187.173996 182.6779938
233.3569946 188.1759949 183.3849945
232.4609985 186.1900024 182.7129974
232.4210052 185.0279999 181.9559937
231.5019989 184.2259979 182.121994
233.5130005 184.8690033 181.0440063
234.4790039 185.8029938 180.9889984
235.9700012 184.4960022 177.8410034
236.8090057 186.6580048 176.7129974
239.8280029 186.5059967 183.3159943
240.6269989 184.7969971 181.4759979
239.8130035 185.0690002 182.6300049
240.9230042 183.3170013 181.378006
241.723999 183.0879974 180.1889954
241.7339935 182.7259979 182.529007
240.8910065 182.3170013 183.6210022
242.4349976 181.5480042 181.8569946
241.5980072 180.4129944 181.723999
242.7299957 182.1269989 180.4640045
247.7590027 181.8390045 181.2680054
246.776001 180.9230042 181.5679932
247.1829987 179.7839966 182.1519928
245.4909973 181.1100006 181.3110046
245.2599945 182.3040009 180.7160034
246.1690063 183.2850037 180.3690033
247.5469971 183.0709991 180.6490021
248.5070038 183.8190002 180.4100037
245.5310059 184.3639984 179.7700043
244.2689972 184.0319977 179.7660065
244.0299988 182.7910004 180.322998
238.9600067 186.4459991 184.5269928
241.2429962 186.9329987 183.4550018
240.9700012 183.0789948 185.0500031
241.3200073 180.6950073 186.121994
241.7599945 182.0590057 185.9810028
242.5019989 179.8000031 186.404007
243.3880005 179.8009949 185.2460022
243.3950043 180.2630005 187.5500031
242.8860016 179.9060059 188.8390045
244.7380066 179.625 187.1999969
244.8209991 178.2519989 187.5440063
244.7480011 179.7890015 185.6759949
245.4109955 181.0359955 185.2050018
246.8170013 181.0650024 185.1040039
247.470993 180.0769958 185.4799957
247.4219971 182.1730042 184.6040039
246.6889954 183.223999 184.2310028
247.322998 184.279007 183.7160034
245.2720032 183.2389984 184.3619995
244.6779938 182.1390076 184.8500061
239.5820007 183.1629944 185.5890045
241.7839966 184.3249969 184.9320068
243.1089935 180.901001 190.0910034
245.3549957 179.6179962 190.6410065
244.6889954 180.8639984 190.3339996
246.8600006 179.8049927 190.7519989
247.4700012 180.003006 189.4470062
247.3769989 180.9779968 191.5679932
247.2779999 180.7510071 192.9730072
248.826004 181.0670013 191.0910034
249.6710052 180.0970001 191.6909943
248.6670074 180.7599945 189.595993
248.5829926 181.9720001 188.7590027
249.772995 182.496994 188.2550049
250.8710022 181.996994 188.4680023
249.6309967 183.6329956 187.4929962
248.4530029 184.2899933 187.1860046
248.4909973 185.3159943 186.4989929
247.2720032 183.6900024 187.7350006
247.3730011 182.5809937 188.4830017
242.4389954 180.276001 191.2649994
242.7339935 182.2890015 189.6809998
246.9199982 181.9799957 193.9559937
249.4680023 182.2830048 194.6309967
248.272995 182.8309937 194.0209961
250.6809998 183.1289978 194.2949982
250.9230042 183.1060028 192.8619995
250.6109924 184.6119995 194.6349945
250.8829956 184.8630066 196.0200043
251.6790009 185.1970062 193.7140045
252.996994 185.0189972 194.2050018
251.4880066 184.345993 192.4539948
251.1230011 187.7129974 188.6560059
252.2079926 187.3919983 189.4340057
253.3379974 188.0599976 189.1609955
252.1829987 186.4889984 190.4069977
250.9570007 185.9329987 190.5500031
249.8059998 186.1909943 189.8300018
249.8549957 187.1519928 188.7779999
248.9470062 187.5090027 188.0110016
248.75 185.4129944 190.2899933
249.2660065 184.7070007 191.2610016
250.6040039 184.9669952 191.4680023
246.6609955 181.3730011 195.2969971
245.8600006 182.8159943 193.3049927
250.3880005 186.2429962 196.7070007
252.845993 187.2189941 196.5070038
251.4369965 187.3370056 196.2079926
253.6390076 188.2050018 195.6779938
253.5200043 187.8699951 194.2669983
253.1549988 189.6450043 195.7550049
253.6260071 190.3059998 196.927002
253.6860046 190.2389984 194.4530029
255.0610046 190.5890045 194.5059967
253.4850006 189.0639954 193.4900055
250.9019928 191.1150055 189.5310059
252.1609955 191.2640076 189.9589996
252.772995 190.6999969 191.003006
251.9320068 189.8789978 191.6600037
250.6069946 189.6199951 191.3399963
250.0809937 190.2839966 190.2129974
248.8269958 190.1369934 189.7899933
250.048996 188.7149963 192.2350006
251.029007 188.4499969 193.0679932
252.2030029 189.1199951 192.7779999
250.5570068 186.0679932 198.1829987
249.048996 186.6199951 196.1600037
252.6699982 191.3549957 197.6909943
253.973999 193.3159943 196.4750061
252.7180023 192.6560059 196.7640076
253.8289948 194.2519989 195.2929993
253.4429932 193.4989929 194.1089935
252.7590027 195.3300018 195.3919983
253.1670074 196.4519958 196.1660004
252.5429993 195.6929932 193.9290009
253.5570068 196.5359955 193.4060059
252.621994 194.3130035 193.2740021
251.2899933 193.6779938 193.1300049
250.4290009 194.1159973 192.0859985
250.8200073 195.0110016 191.3059998
249.2019958 193.5509949 191.9640045
248.8190002 192.5910034 192.8130035
247.5980072 192.0700073 192.6600037
249.6710052 192.121994 193.8639984
250.8809967 192.6889954 193.9859924
253.3350067 191.673996 198.9929962
251.2689972 190.8249969 197.6869965
252.0800018 197.5659943 196.5789948
250.6470032 199.223999 195.0919952
251.7339935 198.2819977 195.1950073
250.4880066 199.6920013 193.6580048
250.2200012 198.5570068 192.7890015
249.3190002 200.6399994 193.4219971
249.6929932 201.9850006 193.75
249.022995 200.4409943 191.9340057
249.871994 201.1900024 191.0800018
249.3159943 198.9409943 191.7599945
244.6640015 197.8569946 189.776001
245.5610046 198.8200073 189.496994
246.7519989 199.052002 190.0509949
247.0110016 198.1430054 191.0140076
246.1869965 197.0910034 191.4100037
244.9530029 196.9589996 190.7449951
244.0610046 196.0019989 191.0180054
246.7830048 196.3549957 192.4290009
247.9299927 196.9660034 192.6289978
248.1390076 198.0559998 191.8049927
252.7680054 198.548996 197.4649963
250.8569946 196.8600006 197.0690002
248.7019958 202.9129944 194.6190033
247.8710022 203.9259949 192.3390045
247.5509949 203.2910004 193.5879974
246.697998 203.8350067 191.4060059
246.4750061 202.4450073 191.0599976
245.3789978 204.2960052 192.0059967
245.2310028 205.7140045 191.9069977
244.3609924 203.5449982 191.154007
244.1309967 204.1670074 189.901001
245.0820007 202.2109985 190.9279938
244.6950073 201.0939941 191.8119965
243.5050049 200.4170074 191.5269928
242.7359924 200.7590027 190.6369934
243.2480011 199.326004 192.3280029
244.0180054 198.852005 193.3690033
243.7050018 197.7899933 193.9179993
245.197998 199.6289978 193.6369934
245.4889984 200.6959991 192.871994
249.4689941 204.1569977 194.9320068
248.1040039 202.1130066 195.7319946
244.9019928 206.5890045 193.2250061
242.3589935 206.6900024 192.477005
243.3430023 206.3569946 193.4830017
241.0639954 205.9490051 192.7449951
241.2980042 204.5110016 192.6600037
240.4689941 206.1519928 194.1309967
239.7220001 207.3769989 194.1849976
239.621994 204.8899994 194.3049927
238.3800049 204.9539948 193.625
240.503006 203.8350067 193.6230011
241.8849945 199.2480011 195.5549927
240.9589996 199.598999 194.651001
240.6529999 200.8139954 194.1820068
241.4309998 201.7539978 194.7489929
242.4250031 201.5449982 195.6880035
242.6499939 200.2160034 196.1029968
243.576004 199.8659973 197.0039978
243.022995 202.7449951 196.0449982
242.3860016 203.6390076 195.3320007
241.4029999 203.1119995 194.5279999
245.1029968 208.0200043 192.8549957
245.6499939 206.0130005 194.3840027
239.6040039 208.1940002 195.5720062
241.4579926 209.3070068 197.0809937
241.1009979 208.2910004 196.1199951
242.6029968 208.8470001 197.9660034
242.2120056 207.6699982 198.7319946
243.9299927 208.4989929 197.2929993
244.9980011 208.9309998 198.1390076
243.8910065 206.970993 197.2519989
245.1699982 206.3639984 197.2160034
243.1860046 206.6549988 198.5709991
243.6119995 201.6439972 199.723999
244.4669952 202.6699982 199.8320007
244.2929993 203.9550018 199.5130005
243.0579987 204.1629944 199.022995
242.0659943 203.2100067 198.8529968
242.378006 201.8820038 199.2299957
241.526001 200.8560028 199.128006
240.9179993 203.7890015 198.3249969
241.2330017 205.0559998 198.1909943
242.5140076 205.3540039 198.5919952
238.8049927 207.3450012 196.5050049
239.1399994 209.5749969 195.2599945
245.6269989 210.4089966 197.9649963
246.3240051 210.7720032 200.529007
246.7050018 210.4779968 199.1490021
245.3829956 209.7059937 201.0690002
245.8789978 208.3730011 200.7350006
245.1419983 209.7050018 202.5789948
243.7649994 209.3580017 202.8289948
246.0930023 208.595993 203.0549927
245.7109985 208.0019989 204.276001
245.9700012 207.5879974 201.9120026
247.977005 203.1170044 203.3760071
246.8110046 203.720993 203.7850037
246.0910034 203.0420074 204.6869965
246.3840027 204.8999939 203.3390045
247.2299957 205.4309998 202.4219971
248.4160004 204.904007 201.9409943
248.8659973 203.6430054 202.4420013
249.8959961 203.0169983 202.1529999
248.9880066 205.753006 201
248.1660004 206.7660065 200.9290009
247.0749969 206.6399994 201.7619934
244.5469971 211.4029999 198.2429962
246.352005 210.4640045 196.6609955
242.779007 210.4080048 203.5709991
240.6139984 210.9810028 202.1210022
241.3249969 210.0599976 202.9989929
239.5740051 210.246994 201.2899933
240.2259979 209.1779938 200.5540009
238.4349976 209.5590057 202.0420074
237.3509979 210.4609985 202.3269958
237.9989929 208.473999 201.0579987
237.1239929 208.9620056 200.0500031
239.3390045 208.0740051 200.4210052
239.996994 206.8630066 200.9579926
239.3150024 205.6439972 200.8970032
238.1889954 205.5220032 200.4340057
240.0099945 204.5690002 201.397995
241.2830048 204.5720062 201.9369965
241.7890015 203.5119934 202.3099976
241.9100037 205.8529968 201.9730072
241.2660065 206.9259949 201.5
243.1439972 211.7910004 203.1269989
242.7799988 210.0749969 205.029007
236.3600006 210.1790009 203.5780029
234.677002 208.4440002 202.4550018
235.7949982 208.697998 203.3480072
234.1419983 207.0319977 202.6390076
235.1699982 206.0509949 202.3220062
233.6959991 206.6309967 204.0390015
232.3890076 207.125 204.3300018
233.7059937 205.1060028 203.9579926
232.5440063 204.5820007 203.3450012
234.9129944 204.8509979 203.0460052
237.3370056 200.9089966 205.302002
236.1439972 201.0140076 204.6999969
235.5740051 202.0749969 204.1320038
236.3769989 203.1490021 204.2189941
237.6309967 203.1990051 204.8049927
238.1230011 202.0039978 205.371994
239.3119965 201.8970032 205.9700012
238.1670074 204.477005 204.7089996
237.2429962 205.1629944 204.076004
236.1289978 204.4219971 203.7480011
235.2230072 211.1360016 203.4530029
237.1849976 210.1730042 204.8249969
231.8439941 207.1139984 205.8450012
231.9889984 205.1360016 207.6089935
231.8119965 205.5670013 206.2380066
232.6690063 203.7819977 207.6439972
233.7769928 203.7850037 206.7059937
233.2519989 203.3609924 208.9920044
232.2890015 202.6390076 209.779007
234.4340057 202.4779968 208.5859985
234.0469971 201.1470032 208.2839966
234.9089966 203.1670074 207.2940063
239.6450043 204.3930054 209.0249939
238.9219971 203.2689972 209.1239929
237.6990051 203.0070038 208.6670074
237.1909943 204.0769958 208.0319977
237.8139954 205.3049927 207.8529968
239.1069946 205.4499969 208.378006
239.826004 206.5709991 208.2680054
236.9929962 206.1809998 207.1580048
235.9080048 205.4810028 206.9290009
235.9589996 204.1909943 207.4230042
230.4340057 207.5950012 205.7879944
232.8370056 207.8280029 206.7059937
231.6009979 203.3309937 211.0670013
